ply
format ascii 1.0
element vertex 60
property float32 x
property float32 y
property float32 z
element face 0
property list uint8 int32 vertex_indices
end_header
467.37860000 0.00000000 0.00000000 
252.52573529 393.28553082 0.00000000 
252.52573529 393.28553082 0.00000000 
-194.49812586 424.98615833 0.00000000
-462.70130707 65.95647180 0.00000000 
-462.70130707 65.95647180 0.00000000
-305.49904042 -353.71329073 0.00000000 
132.57763511 -448.18068500 0.00000000 
132.57763511 -448.18068500 0.00000000 
448.76304434 -130.59282437 0.00000000 
467.37860000 0.00000000 0.00090714 
252.52573529 393.28553082 0.00090714 
252.52573529 393.28553082 0.00090714 
-194.49812586 424.98615833 0.00090714 
-462.70130707 65.95647180 0.00090714 
-462.70130707 65.95647180 0.00090714 
-305.49904042 -353.71329073 0.00090714
132.57763511 -448.18068500 0.00090714 
132.57763511 -448.18068500 0.00090714
448.76304434 -130.59282437 0.00090714
467.37860000 0.00000000 0.00181429
252.52573529 393.28553082 0.00181429 
252.52573529 393.28553082 0.00181429 
-194.49812586 424.98615833 0.00181429 
-462.70130707 65.95647180 0.00181429 
-462.70130707 65.95647180 0.00181429 
-305.49904042 -353.71329073 0.00181429 
132.57763511 -448.18068500 0.00181429 
132.57763511 -448.18068500 0.00181429 
448.76304434 -130.59282437 0.00181429 
467.37860000 0.00000000 0.00272143 
252.52573529 393.28553082 0.00272143 
252.52573529 393.28553082 0.00272143 
-194.49812586 424.98615833 0.00272143 
-462.70130707 65.95647180 0.00272143 
-462.70130707 65.95647180 0.00272143 
-305.49904042 -353.71329073 0.00272143 
132.57763511 -448.18068500 0.00272143 
132.57763511 -448.18068500 0.00272143 
448.76304434 -130.59282437 0.00272143 
467.37860000 0.00000000 0.00362857 
252.52573529 393.28553082 0.00362857 
252.52573529 393.28553082 0.00362857 
-194.49812586 424.98615833 0.00362857 
-462.70130707 65.95647180 0.00362857 
-462.70130707 65.95647180 0.00362857 
-305.49904042 -353.71329073 0.00362857 
132.57763511 -448.18068500 0.00362857 
132.57763511 -448.18068500 0.00362857 
448.76304434 -130.59282437 0.00362857 
467.37860000 0.00000000 0.00453571 
252.52573529 393.28553082 0.00453571 
252.52573529 393.28553082 0.00453571 
-194.49812586 424.98615833 0.00453571 
-462.70130707 65.95647180 0.00453571 
-462.70130707 65.95647180 0.00453571 
-305.49904042 -353.71329073 0.00453571 
132.57763511 -448.18068500 0.00453571 
132.57763511 -448.18068500 0.00453571 
448.76304434 -130.59282437 0.00453571 
